# .PCD v0.7 - Point Cloud Data file format
VERSION 0.7
FIELDS x y z
SIZE 4 4 4
TYPE F F F
COUNT 1 1 1
WIDTH 1620
HEIGHT 1
VIEWPOINT 0 0 0 1 0 0 0
POINTS 1620
DATA ascii
0.042997688 0.14599653 0.59100002
0.044540919 0.14599653 0.59100002
0.046162125 0.14624356 0.59200001
0.047707967 0.14624356 0.59200001
0.049337011 0.1464906 0.59300005
0.050885465 0.1464906 0.59300005
0.052433919 0.1464906 0.59300005
0.053982373 0.1464906 0.59300005
0.055530827 0.1464906 0.59300005
0.057175536 0.14673764 0.59400004
0.058726594 0.14673764 0.59400004
0.060277659 0.14673764 0.59400004
0.061828725 0.14673764 0.59400004
0.063273087 0.1464906 0.59300005
0.064821541 0.1464906 0.59300005
0.066369995 0.1464906 0.59300005
0.06791845 0.1464906 0.59300005
0.069466904 0.1464906 0.59300005
0.071015358 0.1464906 0.59300005
0.072441436 0.14624356 0.59200001
0.073987283 0.14624356 0.59200001
0.07566072 0.1464906 0.59300005
0.077078968 0.14624356 0.59200001
0.078757629 0.1464906 0.59300005
0.080306076 0.1464906 0.59300005
0.08185453 0.1464906 0.59300005
0.083402984 0.1464906 0.59300005
0.084951438 0.1464906 0.59300005
0.086499892 0.1464906 0.59300005
0.088048346 0.1464906 0.59300005
0.089445703 0.14624356 0.59200001
0.091145255 0.1464906 0.59300005
0.092693709 0.1464906 0.59300005
0.094242163 0.1464906 0.59300005
0.095790617 0.1464906 0.59300005
0.097339071 0.1464906 0.59300005
0.099221036 0.14698467 0.59500003
0.10077471 0.14698467 0.59500003
0.10232838 0.14698467 0.59500003
0.10388206 0.14698467 0.59500003
0.10543574 0.14698467 0.59500003
0.10698941 0.14698467 0.59500003
0.10854309 0.14698467 0.59500003
0.11009677 0.14698467 0.59500003
0.11146279 0.14673764 0.59400004
0.11301386 0.14673764 0.59400004
0.11437206 0.1464906 0.59300005
0.11592051 0.1464906 0.59300005
0.11746896 0.1464906 0.59300005
0.11901741 0.1464906 0.59300005
0.12056587 0.1464906 0.59300005
0.12211432 0.1464906 0.59300005
0.12366278 0.1464906 0.59300005
0.12521122 0.1464906 0.59300005
0.12675968 0.1464906 0.59300005
0.12874088 0.14698467 0.59500003
0.13029455 0.14698467 0.59500003
0.13184823 0.14698467 0.59500003
0.1334019 0.14698467 0.59500003
0.1351824 0.14723168 0.59600002
0.13673867 0.14723168 0.59600002
0.13829497 0.14723168 0.59600002
0.13985126 0.14723168 0.59600002
0.14164481 0.14747871 0.597
0.14320369 0.14747871 0.597
0.14476259 0.14747871 0.597
0.14656658 0.14772576 0.59800005
0.14812811 0.14772576 0.59800005
0.14968961 0.14772576 0.59800005
0.15150405 0.14797279 0.59900004
0.15306817 0.14797279 0.59900004
0.1546323 0.14797279 0.59900004
0.15619642 0.14797279 0.59900004
0.15776053 0.14797279 0.59900004
0.15932466 0.14797279 0.59900004
0.16062018 0.14772576 0.59800005
0.16245289 0.14797279 0.59900004
0.16401702 0.14797279 0.59900004
0.16558114 0.14797279 0.59900004
0.16714527 0.14797279 0.59900004
0.16870938 0.14797279 0.59900004
0.1702735 0.14797279 0.59900004
0.17212449 0.14821982 0.60000002
0.17369123 0.14821982 0.60000002
0.17525795 0.14821982 0.60000002
0.17682469 0.14821982 0.60000002
0.17839143 0.14821982 0.60000002
0.17995815 0.14821982 0.60000002
0.18152489 0.14821982 0.60000002
0.18309161 0.14821982 0.60000002
0.18465835 0.14821982 0.60000002
0.18622509 0.14821982 0.60000002
0.18779181 0.14821982 0.60000002
0.18935855 0.14821982 0.60000002
0.19060707 0.14797279 0.59900004
0.1921712 0.14797279 0.59900004
0.19373532 0.14797279 0.59900004
0.19562547 0.14821982 0.60000002
0.19719221 0.14821982 0.60000002
0.1990902 0.14846686 0.60100001
0.20099343 0.1487139 0.60200006
0.20256539 0.1487139 0.60200006
0.20413734 0.1487139 0.60200006
0.20605101 0.14896093 0.60300004
0.20762555 0.14896093 0.60300004
0.20920011 0.14896093 0.60300004
0.21112423 0.14920796 0.60400003
0.2127014 0.14920796 0.60400003
0.21427858 0.14920796 0.60400003
0.21621312 0.14945498 0.60500002
0.21779291 0.14945498 0.60500002
0.2190101 0.14920796 0.60400003
0.22058728 0.14920796 0.60400003
0.22253227 0.14945498 0.60500002
0.22374164 0.14920796 0.60400003
0.22569185 0.14945498 0.60500002
0.22689599 0.14920796 0.60400003
0.22847317 0.14920796 0.60400003
0.23005034 0.14920796 0.60400003
0.23162752 0.14920796 0.60400003
0.2335908 0.14945498 0.60500002
0.23517057 0.14945498 0.60500002
0.23675036 0.14945498 0.60500002
0.23872408 0.14970201 0.60600001
0.24030648 0.14970201 0.60600001
0.24228805 0.14994906 0.60700005
0.24427484 0.15019609 0.60800004
0.24586245 0.15019609 0.60800004
0.24745008 0.15019609 0.60800004
0.2490377 0.15019609 0.60800004
0.25021312 0.14994906 0.60700005
0.25179812 0.14994906 0.60700005
0.25338313 0.14994906 0.60700005
0.25454807 0.14970201 0.60600001
0.25613049 0.14970201 0.60600001
0.25728762 0.14945498 0.60500002
0.25886741 0.14945498 0.60500002
0.2604472 0.14945498 0.60500002
0.26202697 0.14945498 0.60500002
0.26360676 0.14945498 0.60500002
0.26518655 0.14945498 0.60500002
0.26720726 0.14970201 0.60600001
0.26878968 0.14970201 0.60600001
0.27037206 0.14970201 0.60600001
0.27195448 0.14970201 0.60600001
0.27353686 0.14970201 0.60600001
0.27557328 0.14994906 0.60700005
0.27715829 0.14994906 0.60700005
0.2787433 0.14994906 0.60700005
0.27986646 0.14970201 0.60600001
0.28191331 0.14994906 0.60700005
0.28349835 0.14994906 0.60700005
0 0 0
0 0 0
0 0 0
0 0 0
0 0 0
0 0 0
0 0 0
0 0 0
-0 0 0
-0 0 0
-0 0 0
-0 0 0
-0 0 0
-0 0 0
-0 0 0
-0 0 0
-0 0 0
-0 0 0
-0 0 0
-0 0 0
-0 0 0
-0 0 0
-0 0 0
-0 0 0
-1.1643759 0.52974516 2.1220002
-1.155012 0.52799761 2.115
-1.1494893 0.52799761 2.115
-1.1439666 0.52799761 2.115
-1.1384438 0.52799761 2.115
-1.1329211 0.52799761 2.115
-1.1273984 0.52799761 2.115
-1.1218756 0.52799761 2.115
-1.1163529 0.52799761 2.115
-1.1108302 0.52799761 2.115
-1.1053075 0.52799761 2.115
-1.0961448 0.52625006 2.108
-1.0865014 0.52425295 2.1000001
-1.0810177 0.52425295 2.1000001
-1.0719491 0.52250546 2.0930002
-1.0664839 0.52250546 2.0930002
-1.0610186 0.52250546 2.0930002
-1.0520229 0.52075797 2.0860002
-1.046576 0.52075797 2.0860002
-1.0376351 0.51901037 2.079
-1.0322064 0.51901037 2.079
-1.0267776 0.51901037 2.079
-1.01791 0.51726288 2.072
-1.0124996 0.51726288 2.072
-0 0 0
-0 0 0
-0 0 0
-0 0 0
-0 0 0
-0 0 0
-0 0 0
-0 0 0
-0 0 0
-0 0 0
-0 0 0
-0 0 0
-0 0 0
-0 0 0
-0 0 0
-0 0 0
-0 0 0
-0 0 0
-0 0 0
-0 0 0
-0 0 0
-0 0 0
-0 0 0
-0 0 0
-0.24513568 0.14454404 0.57900006
-0.24362378 0.14454404 0.57900006
-0.24211188 0.14454404 0.57900006
-0.24101552 0.14479367 0.58000004
-0.23991394 0.14504331 0.58100003
-0.23880714 0.14529295 0.58200002
-0.23769511 0.14554259 0.583
-0.23617278 0.14554259 0.583
-0.23505294 0.14579226 0.58400005
-0.23392786 0.1460419 0.58500004
-0.23279755 0.14629154 0.58600003
-0.23166203 0.14654118 0.58700001
-0.23052128 0.14679082 0.588
-0.22937533 0.14704047 0.58900005
-0.22783732 0.14704047 0.58900005
-0.22629932 0.14704047 0.58900005
-0.22476131 0.14704047 0.58900005
-0.2232233 0.14704047 0.58900005
-0.22093253 0.14654118 0.58700001
-0.21865222 0.1460419 0.58500004
-0.21638234 0.14554259 0.583
-0.21375439 0.14479367 0.58000004
-0.21150801 0.14429438 0.57800001
-0.20963541 0.14404474 0.57700002
-0.20740733 0.14354545 0.57500005
-0.20554775 0.14329579 0.574
-0.20369343 0.14304616 0.57300001
-0.20219721 0.14304616 0.57300001
-0.20070098 0.14304616 0.57300001
-0.19920474 0.14304616 0.57300001
-0.19770852 0.14304616 0.57300001
-0.19621229 0.14304616 0.57300001
-0.19505587 0.14329579 0.574
-0.19355704 0.14329579 0.574
-0.19205819 0.14329579 0.574
-0.19055936 0.14329579 0.574
-0.18906051 0.14329579 0.574
-0.18756168 0.14329579 0.574
-0.18606283 0.14329579 0.574
-0.18456399 0.14329579 0.574
-0.18306515 0.14329579 0.574
-0.18156631 0.14329579 0.574
-0.18006748 0.14329579 0.574
-0.17856863 0.14329579 0.574
-0.1773783 0.14354545 0.57500005
-0.17587684 0.14354545 0.57500005
-0.17407212 0.14329579 0.574
-0.17287393 0.14354545 0.57500005
-0.17137249 0.14354545 0.57500005
-0.17016646 0.1437951 0.57600003
-0.16895521 0.14404474 0.57700002
-0.16744854 0.14404474 0.57700002
-0.16594186 0.14404474 0.57700002
-0.16443518 0.14404474 0.57700002
-0.16292851 0.14404474 0.57700002
-0.16142184 0.14404474 0.57700002
-0.15991516 0.14404474 0.57700002
-0.15840849 0.14404474 0.57700002
-0.15690182 0.14404474 0.57700002
-0.15512583 0.1437951 0.57600003
-0.15335506 0.14354545 0.57500005
-0.15185362 0.14354545 0.57500005
-0.15035217 0.14354545 0.57500005
-0.14859183 0.14329579 0.574
-0.14709298 0.14329579 0.574
-0.14559415 0.14329579 0.574
-0.1440953 0.14329579 0.574
-0.14259647 0.14329579 0.574
-0.14109762 0.14329579 0.574
-0.13959879 0.14329579 0.574
-0.13809995 0.14329579 0.574
-0.13660111 0.14329579 0.574
-0.13533765 0.14354545 0.57500005
-0.13406895 0.1437951 0.57600003
-0.13279504 0.14404474 0.57700002
-0.13128836 0.14404474 0.57700002
-0.13000661 0.14429438 0.57800001
-0.12849732 0.14429438 0.57800001
-0.12720776 0.14454404 0.57900006
-0.12569585 0.14454404 0.57900006
-0.12439843 0.14479367 0.58000004
-0.12288392 0.14479367 0.58000004
-0.12136942 0.14479367 0.58000004
-0.11985491 0.14479367 0.58000004
-0.1183404 0.14479367 0.58000004
-0.11682589 0.14479367 0.58000004
-0.11531139 0.14479367 0.58000004
-0.11379688 0.14479367 0.58000004
-0.11228237 0.14479367 0.58000004
-0.11076786 0.14479367 0.58000004
-0.10925335 0.14479367 0.58000004
-0.10773885 0.14479367 0.58000004
-0.10622434 0.14479367 0.58000004
-0.10470983 0.14479367 0.58000004
-0.10319532 0.14479367 0.58000004
-0.10185613 0.14504331 0.58100003
-0.10033901 0.14504331 0.58100003
-0.098651804 0.14479367 0.58000004
-0.097137295 0.14479367 0.58000004
-0.095787652 0.14504331 0.58100003
-0.094270535 0.14504331 0.58100003
-0.092753418 0.14504331 0.58100003
-0.091393329 0.14529295 0.58200002
-0.089719176 0.14504331 0.58100003
-0.088353865 0.14529295 0.58200002
-0.086834148 0.14529295 0.58200002
-0.085461006 0.14554259 0.583
-0.083938658 0.14554259 0.583
-0.082416318 0.14554259 0.583
-0.080755226 0.14529295 0.58200002
-0.079235494 0.14529295 0.58200002
-0.077715769 0.14529295 0.58200002
-0.076196037 0.14529295 0.58200002
-0.074676305 0.14529295 0.58200002
-0.073030882 0.14504331 0.58100003
-0.071390674 0.14479367 0.58000004
-0.069876164 0.14479367 0.58000004
-0.068361655 0.14479367 0.58000004
-0.066847146 0.14479367 0.58000004
-0.065332644 0.14479367 0.58000004
-0.063818134 0.14479367 0.58000004
-0.062303625 0.14479367 0.58000004
-0.060789116 0.14479367 0.58000004
-0.05927461 0.14479367 0.58000004
-0.057859693 0.14504331 0.58100003
-0.056439545 0.14529295 0.58200002
-0.054919817 0.14529295 0.58200002
-0.053491838 0.14554259 0.583
-0.051969498 0.14554259 0.583
-0.05053369 0.14579226 0.58400005
-0.049008738 0.14579226 0.58400005
-0.047483783 0.14579226 0.58400005
-0.045958832 0.14579226 0.58400005
-0.044433881 0.14579226 0.58400005
-0.042835448 0.14554259 0.583
-0.041313108 0.14554259 0.583
-0.039790768 0.14554259 0.583
-0.038202785 0.14529295 0.58200002
-0.036620028 0.14504331 0.58100003
-0.035102908 0.14504331 0.58100003
-0.033585791 0.14504331 0.58100003
-0.03206867 0.14504331 0.58100003
-0.030604135 0.14529295 0.58200002
-0.029084407 0.14529295 0.58200002
-0.027612038 0.14554259 0.583
-0.026134448 0.14579226 0.58400005
-0.024609497 0.14579226 0.58400005
-0.023084544 0.14579226 0.58400005
-0.021596508 0.1460419 0.58500004
-0.02010325 0.14629154 0.58600003
-0.018604768 0.14654118 0.58700001
-0.017101068 0.14679082 0.588
-0.01556567 0.14679082 0.588
-0.014054134 0.14704047 0.58900005
-0.012516126 0.14704047 0.58900005
-0.010978118 0.14704047 0.58900005
-0.0094401091 0.14704047 0.58900005
-0.007888684 0.14679082 0.588
-0.0063532866 0.14679082 0.588
-0.00481789 0.14679082 0.588
-0.0032769099 0.14654118 0.58700001
-0.0017441241 0.14654118 0.58700001
-0.00021133811 0.14654118 0.58700001
0.0013214478 0.14654118 0.58700001
0 0 0
0 0 0
0.0059198057 0.14654118 0.58700001
0.0074525918 0.14654118 0.58700001
0.0089853778 0.14654118 0.58700001
0.010518163 0.14654118 0.58700001
0.012071479 0.14679082 0.588
0.013583736 0.14654118 0.58700001
0.015116522 0.14654118 0.58700001
0.016649308 0.14654118 0.58700001
0.018182093 0.14654118 0.58700001
0.019714879 0.14654118 0.58700001
0.021247664 0.14654118 0.58700001
0.022780452 0.14654118 0.58700001
0.024313238 0.14654118 0.58700001
0.025846023 0.14654118 0.58700001
0.027378811 0.14654118 0.58700001
0.028862344 0.14629154 0.58600003
0.030392518 0.14629154 0.58600003
0.031977169 0.14654118 0.58700001
0.033509955 0.14654118 0.58700001
0.03504274 0.14654118 0.58700001
0.036575526 0.14654118 0.58700001
0.038108312 0.14654118 0.58700001
0.039641097 0.14654118 0.58700001
0.041173883 0.14654118 0.58700001
0.042779423 0.14679082 0.588
0.04431482 0.14679082 0.588
0.045928199 0.14704047 0.58900005
0.047466207 0.14704047 0.58900005
0.049087413 0.14729011 0.59000003
0.050713845 0.14753975 0.59100002
0.052257072 0.14753975 0.59100002
0.053800303 0.14753975 0.59100002
0.055343535 0.14753975 0.59100002
0.05698302 0.1477894 0.59200001
0.058528859 0.1477894 0.59200001
0.060074702 0.1477894 0.59200001
0.061516456 0.14753975 0.59100002
0.063059688 0.14753975 0.59100002
0.064602919 0.14753975 0.59100002
0.066034228 0.14729011 0.59000003
0.067574844 0.14729011 0.59000003
0.069115467 0.14729011 0.59000003
0.07053633 0.14704047 0.58900005
0.072074339 0.14704047 0.58900005
0.073612347 0.14704047 0.58900005
0.075150356 0.14704047 0.58900005
0.076688364 0.14704047 0.58900005
0.078226373 0.14704047 0.58900005
0.079899803 0.14729011 0.59000003
0.081440426 0.14729011 0.59000003
0.082981043 0.14729011 0.59000003
0.084378406 0.14704047 0.58900005
0.085916422 0.14704047 0.58900005
0.087454431 0.14704047 0.58900005
0.088992439 0.14704047 0.58900005
0.090684146 0.14729011 0.59000003
0.092381075 0.14753975 0.59100002
0.093924306 0.14753975 0.59100002
0.095467538 0.14753975 0.59100002
0.097010769 0.14753975 0.59100002
0.098720752 0.1477894 0.59200001
0.1002666 0.1477894 0.59200001
0.10181244 0.1477894 0.59200001
0.10335828 0.1477894 0.59200001
0.10472693 0.14753975 0.59100002
0.10644997 0.1477894 0.59200001
0.10799581 0.1477894 0.59200001
0.10954165 0.1477894 0.59200001
0.11089985 0.14753975 0.59100002
0.11244308 0.14753975 0.59100002
0.11379344 0.14729011 0.59000003
0.11533406 0.14729011 0.59000003
0.11687468 0.14729011 0.59000003
0.118616 0.14753975 0.59100002
0.11995592 0.14729011 0.59000003
0.12149654 0.14729011 0.59000003
0.12303716 0.14729011 0.59000003
0.12478893 0.14753975 0.59100002
0.12633216 0.14753975 0.59100002
0.12809175 0.1477894 0.59200001
0.1296376 0.1477894 0.59200001
0.13140504 0.14803906 0.59300005
0.13295349 0.14803906 0.59300005
0.13450195 0.14803906 0.59300005
0.1360504 0.14803906 0.59300005
0.13759886 0.14803906 0.59300005
0.13938196 0.1482887 0.59400004
0.14093302 0.1482887 0.59400004
0.14272396 0.14853834 0.59500003
0.14427763 0.14853834 0.59500003
0.1458313 0.14853834 0.59500003
0.14763267 0.14878798 0.59600002
0.14918898 0.14878798 0.59600002
0.15074526 0.14878798 0.59600002
0.15230155 0.14878798 0.59600002
0.15411599 0.14903761 0.597
0.15541412 0.14878798 0.59600002
0.15697041 0.14878798 0.59600002
0.1585267 0.14878798 0.59600002
0.16008298 0.14878798 0.59600002
0.16163927 0.14878798 0.59600002
0.16319557 0.14878798 0.59600002
0.16475184 0.14878798 0.59600002
0.16630813 0.14878798 0.59600002
0.16786443 0.14878798 0.59600002
0.1694207 0.14878798 0.59600002
0.17126386 0.14903761 0.597
0.17282276 0.14903761 0.597
0.17438166 0.14903761 0.597
0.17594056 0.14903761 0.597
0.17749946 0.14903761 0.597
0.17905836 0.14903761 0.597
0.18061726 0.14903761 0.597
0.18217616 0.14903761 0.597
0.18373506 0.14903761 0.597
0.18529394 0.14903761 0.597
0.18685284 0.14903761 0.597
0.18841174 0.14903761 0.597
0.18997064 0.14903761 0.597
0.19152954 0.14903761 0.597
0.19276501 0.14878798 0.59600002
0.19464734 0.14903761 0.597
0.19620624 0.14903761 0.597
0.19776514 0.14903761 0.597
0.19965793 0.14928727 0.59800005
0.20121944 0.14928727 0.59800005
0.20312004 0.14953691 0.59900004
0.20468415 0.14953691 0.59900004
0.20659257 0.14978656 0.60000002
0.20815931 0.14978656 0.60000002
0.20972605 0.14978656 0.60000002
0.21164493 0.1500362 0.60100001
0.21321426 0.1500362 0.60100001
0.21478361 0.1500362 0.60100001
0.21635295 0.1500362 0.60100001
0.2179223 0.1500362 0.60100001
0.21949165 0.1500362 0.60100001
0.22142883 0.15028585 0.60200006
0.22263032 0.1500362 0.60100001
0.22419967 0.1500362 0.60100001
0.22576901 0.1500362 0.60100001
0.22733836 0.1500362 0.60100001
0.2289077 0.1500362 0.60100001
0.23047705 0.1500362 0.60100001
0.2324325 0.15028585 0.60200006
0.23400447 0.15028585 0.60200006
0.23557642 0.15028585 0.60200006
0.2375423 0.15053549 0.60300004
0.23911686 0.15053549 0.60300004
0.24109058 0.15078513 0.60400003
0.24306951 0.15103477 0.60500002
0.24464931 0.15103477 0.60500002
0.2462291 0.15103477 0.60500002
0.24780889 0.15103477 0.60500002
0.24938868 0.15103477 0.60500002
0.25055364 0.15078513 0.60400003
0.25213081 0.15078513 0.60400003
0.25328794 0.15053549 0.60300004
0.25486252 0.15053549 0.60300004
0.25601181 0.15028585 0.60200006
0.25758377 0.15028585 0.60200006
0.25915572 0.15028585 0.60200006
0.26072767 0.15028585 0.60200006
0.26229963 0.15028585 0.60200006
0.26387161 0.15028585 0.60200006
0.26544356 0.15028585 0.60200006
0.26701552 0.15028585 0.60200006
0.26903361 0.15053549 0.60300004
0.27060819 0.15053549 0.60300004
0.27218273 0.15053549 0.60300004
0.27375731 0.15053549 0.60300004
0.27533188 0.15053549 0.60300004
0.27690643 0.15053549 0.60300004
0.27848101 0.15053549 0.60300004
0.28005558 0.15053549 0.60300004
0.28163013 0.15053549 0.60300004
0 0 0
0 0 0
0 0 0
0 0 0
0 0 0
0 0 0
0 0 0
0 0 0
0 0 0
0 0 0
-0 0 0
-0 0 0
-0 0 0
-0 0 0
-0 0 0
-0 0 0
-0 0 0
-0 0 0
-0 0 0
-0 0 0
-0 0 0
-0 0 0
-0 0 0
-0 0 0
-0 0 0
-0 0 0
-1.1566937 0.53175455 2.108
-1.1511893 0.53175455 2.108
-1.1456848 0.53175455 2.108
-1.1401803 0.53175455 2.108
-1.134676 0.53175455 2.108
-1.1291715 0.53175455 2.108
-1.123667 0.53175455 2.108
-1.1181626 0.53175455 2.108
-1.1126581 0.53175455 2.108
-1.1071537 0.53175455 2.108
-1.0974685 0.52973652 2.1000001
-1.0919849 0.52973652 2.1000001
-1.0865014 0.52973652 2.1000001
-1.0774144 0.52797073 2.0930002
-1.0719491 0.52797073 2.0930002
-1.062917 0.52620494 2.0860002
-1.05747 0.52620494 2.0860002
-1.0520229 0.52620494 2.0860002
-1.0430639 0.5244391 2.079
-1.0376351 0.5244391 2.079
-1.0322064 0.5244391 2.079
-1.0233204 0.52267337 2.072
-1.01791 0.52267337 2.072
-1.0124996 0.52267337 2.072
-0 0 0
-0 0 0
-0 0 0
-0 0 0
-0 0 0
-0 0 0
-0 0 0
-0 0 0
-0 0 0
-0 0 0
-0 0 0
-0 0 0
-0 0 0
-0 0 0
-0 0 0
-0 0 0
-0 0 0
-0 0 0
-0 0 0
-0 0 0
-0 0 0
-0 0 0
-0 0 0
-0 0 0
-0.24344216 0.1450469 0.57500005
-0.24194071 0.1450469 0.57500005
-0.24043925 0.1450469 0.57500005
-0.23976888 0.14555141 0.57700002
-0.23867513 0.14580366 0.57800001
-0.23757619 0.14605594 0.57900006
-0.23687971 0.14656043 0.58100003
-0.23576768 0.14681269 0.58200002
-0.23465043 0.14706494 0.583
-0.23352799 0.1473172 0.58400005
-0.2324003 0.14756946 0.58500004
-0.23087274 0.14756946 0.58500004
-0.23012924 0.14807396 0.58700001
-0.22859646 0.14807396 0.58700001
-0.22745049 0.14832622 0.588
-0.22553088 0.14807396 0.58700001
-0.2239981 0.14807396 0.58700001
-0.22170734 0.14756946 0.58500004
-0.21980341 0.1473172 0.58400005
-0.21753092 0.14681269 0.58200002
-0.21489774 0.14605594 0.57900006
-0.21264875 0.14555141 0.57700002
-0.21004428 0.14479464 0.574
-0.20818213 0.14454238 0.57300001
-0.20632519 0.14429013 0.57200003
-0.20447348 0.14403789 0.57100004
-0.20298247 0.14403789 0.57100004
-0.2011386 0.14378563 0.57000005
-0.1996502 0.14378563 0.57000005
-0.19816181 0.14378563 0.57000005
-0.19667341 0.14378563 0.57000005
-0.19518502 0.14378563 0.57000005
-0.19403644 0.14403789 0.57100004
-0.19254543 0.14403789 0.57100004
-0.19105442 0.14403789 0.57100004
-0.18956341 0.14403789 0.57100004
-0.18840177 0.14429013 0.57200003
-0.18690816 0.14429013 0.57200003
-0.18541454 0.14429013 0.57200003
-0.18392092 0.14429013 0.57200003
-0.1824273 0.14429013 0.57200003
-0.18093368 0.14429013 0.57200003
-0.17944007 0.14429013 0.57200003
-0.17794645 0.14429013 0.57200003
-0.17645283 0.14429013 0.57200003
-0.17495921 0.14429013 0.57200003
-0.17346559 0.14429013 0.57200003
-0.17227262 0.14454238 0.57300001
-0.1707764 0.14454238 0.57300001
-0.16957559 0.14479464 0.574
-0.16807675 0.14479464 0.574
-0.16657791 0.14479464 0.574
-0.16507907 0.14479464 0.574
-0.16358022 0.14479464 0.574
-0.16208139 0.14479464 0.574
-0.16058256 0.14479464 0.574
-0.15908371 0.14479464 0.574
-0.15758488 0.14479464 0.574
-0.15608603 0.14479464 0.574
-0.15431787 0.14454238 0.57300001
-0.15282165 0.14454238 0.57300001
-0.15132542 0.14454238 0.57300001
-0.14956771 0.14429013 0.57200003
-0.14807409 0.14429013 0.57200003
-0.14658047 0.14429013 0.57200003
-0.14508685 0.14429013 0.57200003
-0.14359324 0.14429013 0.57200003
-0.1418512 0.14403789 0.57100004
-0.14036019 0.14403789 0.57100004
-0.13911238 0.14429013 0.57200003
-0.13761877 0.14429013 0.57200003
-0.13612515 0.14429013 0.57200003
-0.13463153 0.14429013 0.57200003
-0.13337067 0.14454238 0.57300001
-0.13210459 0.14479464 0.574
-0.13060574 0.14479464 0.574
-0.12933184 0.1450469 0.57500005
-0.12783039 0.1450469 0.57500005
-0.12654863 0.14529917 0.57600003
-0.12526166 0.14555141 0.57700002
-0.12375499 0.14555141 0.57700002
-0.12224831 0.14555141 0.57700002
-0.12074164 0.14555141 0.57700002
-0.11923496 0.14555141 0.57700002
-0.11772829 0.14555141 0.57700002
-0.11622162 0.14555141 0.57700002
-0.11471494 0.14555141 0.57700002
-0.11320827 0.14555141 0.57700002
-0.1117016 0.14555141 0.57700002
-0.11019492 0.14555141 0.57700002
-0.10868825 0.14555141 0.57700002
-0.10718158 0.14555141 0.57700002
-0.1056749 0.14555141 0.57700002
-0.10416823 0.14555141 0.57700002
-0.10283948 0.14580366 0.57800001
-0.10133019 0.14580366 0.57800001
-0.099820904 0.14580366 0.57800001
-0.098311618 0.14580366 0.57800001
-0.096802332 0.14580366 0.57800001
-0.095293052 0.14580366 0.57800001
-0.093783766 0.14580366 0.57800001
-0.09227448 0.14580366 0.57800001
-0.090922236 0.14605594 0.57900006
-0.089410335 0.14605594 0.57900006
-0.087898441 0.14605594 0.57900006
-0.086386554 0.14605594 0.57900006
-0.085021242 0.14630818 0.58000004
-0.083506733 0.14630818 0.58000004
-0.081992231 0.14630818 0.58000004
-0.08033897 0.14605594 0.57900006
-0.078827068 0.14605594 0.57900006
-0.077315174 0.14605594 0.57900006
-0.07580328 0.14605594 0.57900006
-0.074291386 0.14605594 0.57900006
-0.072653778 0.14580366 0.57800001
-0.071144491 0.14580366 0.57800001
-0.069635205 0.14580366 0.57800001
-0.068125919 0.14580366 0.57800001
-0.066616639 0.14580366 0.57800001
-0.065107353 0.14580366 0.57800001
-0.063488036 0.14555141 0.57700002
-0.06208878 0.14580366 0.57800001
-0.060579497 0.14580366 0.57800001
-0.059070211 0.14580366 0.57800001
-0.057560928 0.14580366 0.57800001
-0.056148626 0.14605594 0.57900006
-0.054636728 0.14605594 0.57900006
-0.05312483 0.14605594 0.57900006
-0.051702075 0.14630818 0.58000004
-0.050187569 0.14630818 0.58000004
-0.04867306 0.14630818 0.58000004
-0.047158554 0.14630818 0.58000004
-0.045644045 0.14630818 0.58000004
-0.044129536 0.14630818 0.58000004
-0.04261503 0.14630818 0.58000004
-0.041029658 0.14605594 0.57900006
-0.039517764 0.14605594 0.57900006
-0.038005866 0.14605594 0.57900006
-0.03643094 0.14580366 0.57800001
-0.034921654 0.14580366 0.57800001
-0.033412367 0.14580366 0.57800001
-0.031903084 0.14580366 0.57800001
-0.030393798 0.14580366 0.57800001
-0.028934488 0.14605594 0.57900006
-0.027422592 0.14605594 0.57900006
-0.025955446 0.14630818 0.58000004
-0.024440939 0.14630818 0.58000004
-0.022965958 0.14656043 0.58100003
-0.021485755 0.14681269 0.58200002
-0.020000331 0.14706494 0.583
-0.018509686 0.1473172 0.58400005
-0.017013818 0.14756946 0.58500004
-0.015486254 0.14756946 0.58500004
-0.013982551 0.14782171 0.58600003
-0.012452376 0.14782171 0.58600003
-0.01094084 0.14807396 0.58700001
-0.0093920268 0.14782171 0.58600003
-0.0078618517 0.14782171 0.58600003
-0.0063208723 0.14756946 0.58500004
-0.0047933091 0.14756946 0.58500004
-0.0032601627 0.1473172 0.58400005
-0.0017352105 0.1473172 0.58400005
-0.00020989797 0.14706494 0.583
0.0013124431 0.14706494 0.583
0.0028396468 0.1473172 0.58400005
0.004364599 0.1473172 0.58400005
0.0058895517 0.1473172 0.58400005
0.0074145044 0.1473172 0.58400005
0.0089394571 0.1473172 0.58400005
0.010482327 0.14756946 0.58500004
0.012009891 0.14756946 0.58500004
0.013537454 0.14756946 0.58500004
0.015039266 0.1473172 0.58400005
0.016535854 0.14706494 0.583
0.018058196 0.14706494 0.583
0.019580536 0.14706494 0.583
0.021139076 0.1473172 0.58400005
0.022625217 0.14706494 0.583
0.024147559 0.14706494 0.583
0.025669901 0.14706494 0.583
0.027192242 0.14706494 0.583
0.028714582 0.14706494 0.583
0.030236924 0.14706494 0.583
0.031813744 0.1473172 0.58400005
0.033338696 0.1473172 0.58400005
0.034803949 0.14706494 0.583
0.036326289 0.14706494 0.583
0.037848629 0.14706494 0.583
0.039370973 0.14706494 0.583
0.040893313 0.14706494 0.583
0.042488411 0.1473172 0.58400005
0.044013362 0.1473172 0.58400005
0.045616291 0.14756946 0.58500004
0.047143854 0.14756946 0.58500004
0.048754618 0.14782171 0.58600003
0.0503706 0.14807396 0.58700001
0.051903386 0.14807396 0.58700001
0.053436175 0.14807396 0.58700001
0.055062603 0.14832622 0.588
0.056598 0.14832622 0.588
0.058133394 0.14832622 0.588
0.059668791 0.14832622 0.588
0.061100099 0.14807396 0.58700001
0.062632889 0.14807396 0.58700001
0.064165674 0.14807396 0.58700001
0.065586537 0.14782171 0.58600003
0.067116715 0.14782171 0.58600003
0.068646885 0.14782171 0.58600003
0.070177063 0.14782171 0.58600003
0.071584873 0.14756946 0.58500004
0.073112436 0.14756946 0.58500004
0.074639998 0.14756946 0.58500004
0.07629776 0.14782171 0.58600003
0.077827938 0.14782171 0.58600003
0.079358108 0.14782171 0.58600003
0.080888286 0.14782171 0.58600003
0.082418464 0.14782171 0.58600003
0.083948635 0.14782171 0.58600003
0.085478812 0.14782171 0.58600003
0.087008983 0.14782171 0.58600003
0.088690251 0.14807396 0.58700001
0.090223037 0.14807396 0.58700001
0.091755822 0.14807396 0.58700001
0.093288608 0.14807396 0.58700001
0.09498293 0.14832622 0.588
0.096518323 0.14832622 0.588
0.09822049 0.14857848 0.58900005
0.099758498 0.14857848 0.58900005
0.10129651 0.14857848 0.58900005
0.10283452 0.14857848 0.58900005
0.10437252 0.14857848 0.58900005
0.10591053 0.14857848 0.58900005
0.10744854 0.14857848 0.58900005
0.10898655 0.14857848 0.58900005
0.1103369 0.14832622 0.588
0.1118723 0.14832622 0.588
0.11321483 0.14807396 0.58700001
0.11494309 0.14832622 0.588
0.11647849 0.14832622 0.588
0.11801389 0.14832622 0.588
0.11954928 0.14832622 0.588
0.12108468 0.14832622 0.588
0.12262008 0.14832622 0.588
0.12415548 0.14832622 0.588
0.12590465 0.14857848 0.58900005
0.12744266 0.14857848 0.58900005
0.12919964 0.14883074 0.59000003
0.13096185 0.14908299 0.59100002
0.13250509 0.14908299 0.59100002
0.13404831 0.14908299 0.59100002
0.13559154 0.14908299 0.59100002
0.13713478 0.14908299 0.59100002
0.13891265 0.14933524 0.59200001
0.14045849 0.14933524 0.59200001
0.14200434 0.14933524 0.59200001
0.14379267 0.14958751 0.59300005
0.14534111 0.14958751 0.59300005
0.14688957 0.14958751 0.59300005
0.14843804 0.14958751 0.59300005
0.14998649 0.14958751 0.59300005
0.15179048 0.14983976 0.59400004
0.15334155 0.14983976 0.59400004
0.15489261 0.14983976 0.59400004
0.15618031 0.14958751 0.59300005
0.15772876 0.14958751 0.59300005
0.15927722 0.14958751 0.59300005
0.16082567 0.14958751 0.59300005
0.16237411 0.14958751 0.59300005
0.16392256 0.14958751 0.59300005
0.16547102 0.14958751 0.59300005
0.16701947 0.14958751 0.59300005
0.16856793 0.14958751 0.59300005
0.17011638 0.14958751 0.59300005
0.17195432 0.14983976 0.59400004
0.17379747 0.15009201 0.59500003
0.17535116 0.15009201 0.59500003
0.17690483 0.15009201 0.59500003
0.1784585 0.15009201 0.59500003
0.18001218 0.15009201 0.59500003
0.18156585 0.15009201 0.59500003
0.18311954 0.15009201 0.59500003
0.18467321 0.15009201 0.59500003
0.18622689 0.15009201 0.59500003
0.18778056 0.15009201 0.59500003
0.18933423 0.15009201 0.59500003
0.19056709 0.14983976 0.59400004
0.19211815 0.14983976 0.59400004
0.19399527 0.15009201 0.59500003
0.19554894 0.15009201 0.59500003
0.19743387 0.15034427 0.59600002
0.19899017 0.15034427 0.59600002
0.20054644 0.15034427 0.59600002
0.20210274 0.15034427 0.59600002
0.20365903 0.15034427 0.59600002
0.20555961 0.15059651 0.597
0.20711851 0.15059651 0.597
0.20867741 0.15059651 0.597
0.21023631 0.15059651 0.597
0.21214999 0.15084878 0.59800005
0.21406887 0.15110104 0.59900004
0.21563299 0.15110104 0.59900004
0.21719711 0.15110104 0.59900004
0.21876124 0.15110104 0.59900004
0.22032535 0.15110104 0.59900004
0.22188947 0.15110104 0.59900004
0.2234536 0.15110104 0.59900004
0.22501771 0.15110104 0.59900004
0.22620358 0.15084878 0.59800005
0.22776508 0.15084878 0.59800005
0.22932659 0.15084878 0.59800005
0.2312742 0.15110104 0.59900004
0.23283832 0.15110104 0.59900004
0.23440243 0.15110104 0.59900004
0.23636049 0.15135328 0.60000002
0.23792721 0.15135328 0.60000002
0.23949395 0.15135328 0.60000002
0.24146244 0.15160555 0.60100001
0.24343619 0.15185781 0.60200006
0.24500814 0.15185781 0.60200006
0.24658009 0.15185781 0.60200006
0.24773982 0.15160555 0.60100001
0.24930917 0.15160555 0.60100001
0.25046107 0.15135328 0.60000002
0.25202781 0.15135328 0.60000002
0.25359455 0.15135328 0.60000002
0.25473601 0.15110104 0.59900004
0.25630012 0.15110104 0.59900004
0.25743377 0.15084878 0.59800005
0.25899526 0.15084878 0.59800005
0.26055679 0.15084878 0.59800005
0.26255661 0.15110104 0.59900004
0.26412073 0.15110104 0.59900004
0.26568484 0.15110104 0.59900004
0.26724899 0.15110104 0.59900004
0.2688131 0.15110104 0.59900004
0.27037722 0.15110104 0.59900004
0.27194133 0.15110104 0.59900004
0.27396205 0.15135328 0.60000002
0.27552879 0.15135328 0.60000002
0.27709553 0.15135328 0.60000002
0.27866226 0.15135328 0.60000002
0.28022897 0.15135328 0.60000002
0 0 0
0 0 0
0 0 0
0 0 0
0 0 0
0 0 0
0 0 0
0 0 0
0 0 0
0 0 0
-0 0 0
-0 0 0
-0 0 0
-0 0 0
-0 0 0
-0 0 0
-0 0 0
-0 0 0
-0 0 0
-0 0 0
-0 0 0
-0 0 0
-0 0 0
-0 0 0
-0 0 0
-0 0 0
-1.1566937 0.53725898 2.108
-1.1511893 0.53725898 2.108
-1.1413369 0.53522009 2.1000001
-1.1358534 0.53522009 2.1000001
-1.1303698 0.53522009 2.1000001
-1.1248863 0.53522009 2.1000001
-1.123667 0.53725898 2.108
-1.1139191 0.53522009 2.1000001
-1.1084356 0.53522009 2.1000001
-1.102952 0.53522009 2.1000001
-1.0974685 0.53522009 2.1000001
-1.0883449 0.533436 2.0930002
-1.0828797 0.533436 2.0930002
-1.0774144 0.533436 2.0930002
-1.068364 0.53165197 2.0860002
-1.05935 0.52986783 2.079
-1.0539213 0.52986783 2.079
-1.0484926 0.52986783 2.079
-1.0430639 0.52986783 2.079
-1.0376351 0.52986783 2.079
-1.028731 0.5280838 2.072
-1.0233204 0.5280838 2.072
-1.01791 0.5280838 2.072
-0 0 0
-0 0 0
-0 0 0
-0 0 0
-0 0 0
-0 0 0
-0 0 0
-0 0 0
-0 0 0
-0 0 0
-0 0 0
-0 0 0
-0 0 0
-0 0 0
-0 0 0
-0 0 0
-0 0 0
-0 0 0
-0 0 0
-0 0 0
-0 0 0
-0 0 0
-0 0 0
-0 0 0
-0 0 0
-0.24259539 0.14603862 0.57300001
-0.24109916 0.14603862 0.57300001
-0.24002108 0.14629348 0.574
-0.23893781 0.14654836 0.57500005
-0.23743635 0.14654836 0.57500005
-0.23675554 0.14705808 0.57700002
-0.2360643 0.14756782 0.57900006
-0.23495749 0.14782269 0.58000004
-0.23424795 0.14833242 0.58200002
-0.23272821 0.14833242 0.58200002
-0.23160575 0.14858729 0.583
-0.23047808 0.14884216 0.58400005
-0.22934517 0.14909703 0.58500004
-0.22859646 0.14960675 0.58700001
-0.22667685 0.14935188 0.58600003
-0.22476247 0.14909703 0.58500004
-0.22285332 0.14884216 0.58400005
-0.22094937 0.14858729 0.583
-0.21867427 0.14807755 0.58100003
-0.21603586 0.14731295 0.57800001
-0.21341313 0.14654836 0.57500005
-0.21117458 0.14603862 0.57300001
-0.20858057 0.14527403 0.57000005
-0.20672885 0.14501914 0.56900001
-0.20488235 0.14476429 0.56800002
-0.20304109 0.14450942 0.56700003
-0.20156053 0.14450942 0.56700003
-0.19972709 0.14425455 0.56600004
-0.19824915 0.14425455 0.56600004
-0.19677119 0.14425455 0.56600004
-0.19529325 0.14425455 0.56600004
-0.19415772 0.14450942 0.56700003
-0.19267716 0.14450942 0.56700003
-0.19153379 0.14476429 0.56800002
-0.18971603 0.14450942 0.56700003
-0.18856744 0.14476429 0.56800002
-0.18741365 0.14501914 0.56900001
-0.18592787 0.14501914 0.56900001
-0.18444207 0.14501914 0.56900001
-0.18295629 0.14501914 0.56900001
-0.18147051 0.14501914 0.56900001
-0.17998473 0.14501914 0.56900001
-0.17849894 0.14501914 0.56900001
-0.17732427 0.14527403 0.57000005
-0.17583588 0.14527403 0.57000005
-0.17434748 0.14527403 0.57000005
-0.17285909 0.14527403 0.57000005
-0.17137069 0.14527403 0.57000005
-0.17018032 0.14552888 0.57100004
-0.16868933 0.14552888 0.57100004
-0.16719832 0.14552888 0.57100004
-0.16570731 0.14552888 0.57100004
-0.16421629 0.14552888 0.57100004
-0.16301027 0.14578375 0.57200003
-0.16151665 0.14578375 0.57200003
-0.16002303 0.14578375 0.57200003
-0.15825227 0.14552888 0.57100004
-0.15676126 0.14552888 0.57100004
-0.15527026 0.14552888 0.57100004
-0.15350994 0.14527403 0.57000005
-0.15202154 0.14527403 0.57000005
-0.15053315 0.14527403 0.57000005
-0.14904475 0.14527403 0.57000005
-0.14755636 0.14527403 0.57000005
-0.14581169 0.14501914 0.56900001
-0.14432591 0.14501914 0.56900001
-0.14284012 0.14501914 0.56900001
-0.14135434 0.14501914 0.56900001
-0.13986856 0.14501914 0.56900001
-0.13838278 0.14501914 0.56900001
-0.13713759 0.14527403 0.57000005
-0.13564919 0.14527403 0.57000005
-0.1341608 0.14527403 0.57000005
-0.13290516 0.14552888 0.57100004
-0.13141415 0.14552888 0.57100004
-0.13015068 0.14578375 0.57200003
-0.12865706 0.14578375 0.57200003
-0.12738575 0.14603862 0.57300001
-0.12588952 0.14603862 0.57300001
-0.1243933 0.14603862 0.57300001
-0.12311155 0.14629348 0.574
-0.12161271 0.14629348 0.574
-0.12011386 0.14629348 0.574
-0.11861502 0.14629348 0.574
-0.11711618 0.14629348 0.574
-0.11561734 0.14629348 0.574
-0.1141185 0.14629348 0.574
-0.11261966 0.14629348 0.574
-0.11112082 0.14629348 0.574
-0.10962198 0.14629348 0.574
-0.10812315 0.14629348 0.574
-0.10681007 0.14654836 0.57500005
-0.10530861 0.14654836 0.57500005
-0.10380717 0.14654836 0.57500005
-0.10230571 0.14654836 0.57500005
-0.10080426 0.14654836 0.57500005
-0.099130102 0.14629348 0.574
-0.097631261 0.14629348 0.574
-0.096299909 0.14654836 0.57500005
-0.094798453 0.14654836 0.57500005
-0.093297005 0.14654836 0.57500005
-0.091795549 0.14654836 0.57500005
-0.090451129 0.14680322 0.57600003
-0.088947065 0.14680322 0.57600003
-0.087594815 0.14705808 0.57700002
-0.086088151 0.14705808 0.57700002
-0.084581472 0.14705808 0.57700002
-0.083218776 0.14731295 0.57800001
-0.081568129 0.14705808 0.57700002
-0.080061451 0.14705808 0.57700002
-0.078554779 0.14705808 0.57700002
-0.077048108 0.14705808 0.57700002
-0.075541429 0.14705808 0.57700002
-0.073906451 0.14680322 0.57600003
-0.072276689 0.14654836 0.57500005
-0.070775233 0.14654836 0.57500005
-0.069273785 0.14654836 0.57500005
-0.067772329 0.14654836 0.57500005
-0.06627088 0.14654836 0.57500005
-0.064769424 0.14654836 0.57500005
-0.063267976 0.14654836 0.57500005
-0.061766524 0.14654836 0.57500005
-0.060265072 0.14654836 0.57500005
-0.058763623 0.14654836 0.57500005
-0.057262175 0.14654836 0.57500005
-0.055857696 0.14680322 0.57600003
-0.054353636 0.14680322 0.57600003
-0.052941322 0.14705808 0.57700002
-0.051434651 0.14705808 0.57700002
-0.050014503 0.14731295 0.57800001
-0.048505221 0.14731295 0.57800001
-0.046914626 0.14705808 0.57700002
-0.045407955 0.14705808 0.57700002
-0.04390128 0.14705808 0.57700002
-0.042321131 0.14680322 0.57600003
-0.040817071 0.14680322 0.57600003
-0.039313007 0.14680322 0.57600003
-0.037808944 0.14680322 0.57600003
-0.036241852 0.14654836 0.57500005
-0.0347404 0.14654836 0.57500005
-0.033238951 0.14654836 0.57500005
-0.031737499 0.14654836 0.57500005
-0.030236047 0.14654836 0.57500005
-0.028784567 0.14680322 0.57600003
-0.027327867 0.14705808 0.57700002
-0.025821192 0.14705808 0.57700002
-0.024356658 0.14731295 0.57800001
-0.022847373 0.14731295 0.57800001
-0.021375006 0.14756782 0.57900006
-0.019897414 0.14782269 0.58000004
-0.018446296 0.14833242 0.58200002
-0.016955649 0.14858729 0.583
-0.015433309 0.14858729 0.583
-0.013910968 0.14858729 0.583
-0.012409877 0.14884216 0.58400005
-0.010884925 0.14884216 0.58400005
-0.0093439436 0.14858729 0.583
-0.0078216037 0.14858729 0.583
-0.0062992619 0.14858729 0.583
-0.0047687278 0.14833242 0.58200002
-0.0032489977 0.14833242 0.58200002
-0.0017233255 0.14782269 0.58000004
-0.00020881789 0.14782269 0.58000004
0.0013056896 0.14782269 0.58000004
0.0028201973 0.14782269 0.58000004
0.0043421779 0.14807755 0.58100003
0.0058592968 0.14807755 0.58100003
0.0073764157 0.14807755 0.58100003
0.0089088418 0.14833242 0.58200002
0.010428571 0.14833242 0.58200002
0.011948301 0.14833242 0.58200002
0.013468031 0.14833242 0.58200002
0.014962009 0.14807755 0.58100003
0.016450765 0.14782269 0.58000004
0.017965272 0.14782269 0.58000004
0.01947978 0.14782269 0.58000004
0.020994287 0.14782269 0.58000004
0.022508794 0.14782269 0.58000004
0.024023302 0.14782269 0.58000004
0.025537809 0.14782269 0.58000004
0.027052317 0.14782269 0.58000004
0.028566826 0.14782269 0.58000004
0.030081334 0.14782269 0.58000004
0.031595841 0.14782269 0.58000004
0.033110347 0.14782269 0.58000004
0.034565158 0.14756782 0.57900006
0.036077056 0.14756782 0.57900006
0.03758895 0.14756782 0.57900006
0.039100848 0.14756782 0.57900006
0.040682886 0.14782269 0.58000004
0.042197395 0.14782269 0.58000004
0.043711901 0.14782269 0.58000004
0.045304384 0.14807755 0.58100003
0.04690209 0.14833242 0.58200002
0.048505019 0.14858729 0.583
0.050027359 0.14858729 0.583
0.051549699 0.14858729 0.583
0.053163078 0.14884216 0.58400005
0.054688033 0.14884216 0.58400005
0.056212984 0.14884216 0.58400005
0.057737932 0.14884216 0.58400005
0.059262887 0.14884216 0.58400005
0.060683742 0.14858729 0.583
0.062206086 0.14858729 0.583
0.063728429 0.14858729 0.583
0.065138847 0.14833242 0.58200002
0.066773109 0.14858729 0.583
0.068295449 0.14858729 0.583
0.069817789 0.14858729 0.583
0.071340129 0.14858729 0.583
0.072862476 0.14858729 0.583
0.074384816 0.14858729 0.583
0.075907156 0.14858729 0.583
0.077429496 0.14858729 0.583
0.079087265 0.14884216 0.58400005
0.080474183 0.14858729 0.583
0.081996523 0.14858729 0.583
0.083518863 0.14858729 0.583
0.085041203 0.14858729 0.583
0.086563542 0.14858729 0.583
0.08823698 0.14884216 0.58400005
0.089761935 0.14884216 0.58400005
0.09128689 0.14884216 0.58400005
0.092811838 0.14884216 0.58400005
0.094498329 0.14909703 0.58500004
0.096025892 0.14909703 0.58500004
0.097720213 0.14935188 0.58600003
0.09941975 0.14960675 0.58700001
0.10095254 0.14960675 0.58700001
0.10248532 0.14960675 0.58700001
0.10401811 0.14960675 0.58700001
0.1055509 0.14960675 0.58700001
0.10708369 0.14960675 0.58700001
0.10843144 0.14935188 0.58600003
0.10996161 0.14935188 0.58600003
0.11130153 0.14909703 0.58500004
0.11282909 0.14909703 0.58500004
0.11435665 0.14909703 0.58500004
0.11588422 0.14909703 0.58500004
0.11741178 0.14909703 0.58500004
0.11893935 0.14909703 0.58500004
0.12026098 0.14884216 0.58400005
0.12199447 0.14909703 0.58500004
0.12352204 0.14909703 0.58500004
0.12526336 0.14935188 0.58600003
0.1270099 0.14960675 0.58700001
0.12854269 0.14960675 0.58700001
0.13029706 0.14986162 0.588
0.13183247 0.14986162 0.588
0.13336787 0.14986162 0.588
0.13490325 0.14986162 0.588
0.13667071 0.15011649 0.58900005
0.13820872 0.15011649 0.58900005
0.13974673 0.15011649 0.58900005
0.1415246 0.15037136 0.59000003
0.14306521 0.15037136 0.59000003
0.14485092 0.15062621 0.59100002
0.14639415 0.15062621 0.59100002
0.14793739 0.15062621 0.59100002
0.14948063 0.15062621 0.59100002
0.15127939 0.15088108 0.59200001
0.15282524 0.15088108 0.59200001
0.15437107 0.15088108 0.59200001
0.15565355 0.15062621 0.59100002
0.15719678 0.15062621 0.59100002
0.15874001 0.15062621 0.59100002
0.16028324 0.15062621 0.59100002
0.16182648 0.15062621 0.59100002
0.16309327 0.15037136 0.59000003
0.1646339 0.15037136 0.59000003
0.16617452 0.15037136 0.59000003
0.16771513 0.15037136 0.59000003
0.16954263 0.15062621 0.59100002
0.17108585 0.15062621 0.59100002
0.17292118 0.15088108 0.59200001
0.17446703 0.15088108 0.59200001
0.17601286 0.15088108 0.59200001
0.17755871 0.15088108 0.59200001
0.1794071 0.15113597 0.59300005
0.18095556 0.15113597 0.59300005
0.18250401 0.15113597 0.59300005
0.18405247 0.15113597 0.59300005
0.18560092 0.15113597 0.59300005
0.18683375 0.15088108 0.59200001
0.1883796 0.15088108 0.59200001
0.18992545 0.15088108 0.59200001
0.19147129 0.15088108 0.59200001
0.19301713 0.15088108 0.59200001
0.19489165 0.15113597 0.59300005
0.1964401 0.15113597 0.59300005
0.19798854 0.15113597 0.59300005
0.19953699 0.15113597 0.59300005
0.20142455 0.15139082 0.59400004
0.20297562 0.15139082 0.59400004
0.20452666 0.15139082 0.59400004
0.20607772 0.15139082 0.59400004
0.20797832 0.15164569 0.59500003
0.20953201 0.15164569 0.59500003
0.21108568 0.15164569 0.59500003
0.21263936 0.15164569 0.59500003
0.21455301 0.15190054 0.59600002
0.21610931 0.15190054 0.59600002
0.21766558 0.15190054 0.59600002
0.21922188 0.15190054 0.59600002
0.22077817 0.15190054 0.59600002
0.22233444 0.15190054 0.59600002
0.22389074 0.15190054 0.59600002
0.22506876 0.15164569 0.59500003
0.22662243 0.15164569 0.59500003
0.22817612 0.15164569 0.59500003
0.23011589 0.15190054 0.59600002
0.23167217 0.15190054 0.59600002
0.23322846 0.15190054 0.59600002
0.23517868 0.15215541 0.597
0.23673758 0.15215541 0.597
0.23829648 0.15215541 0.597
0.24025716 0.1524103 0.59800005
0.24222304 0.15266515 0.59900004
0.24378717 0.15266515 0.59900004
0.24535128 0.15266515 0.59900004
0.2465032 0.1524103 0.59800005
0.24806471 0.1524103 0.59800005
0.24920876 0.15215541 0.597
0.25076765 0.15215541 0.597
0.25190389 0.15190054 0.59600002
0.2534602 0.15190054 0.59600002
0.25501648 0.15190054 0.59600002
0.25614229 0.15164569 0.59500003
0.25812906 0.15190054 0.59600002
0.25968534 0.15190054 0.59600002
0.26124161 0.15190054 0.59600002
0.26279792 0.15190054 0.59600002
0.2643542 0.15190054 0.59600002
0.26591048 0.15190054 0.59600002
0.26746678 0.15190054 0.59600002
0.26902306 0.15190054 0.59600002
0.27057934 0.15190054 0.59600002
0.27213565 0.15190054 0.59600002
0.27415115 0.15215541 0.597
0.27571005 0.15215541 0.597
0.27726892 0.15215541 0.597
0.27882782 0.15215541 0.597
0 0 0
0 0 0
0 0 0
0 0 0
0 0 0
0 0 0
0 0 0
0 0 0
0 0 0
0 0 0
-0 0 0
-0 0 0
-0 0 0
-0 0 0
-0 0 0
-0 0 0
-0 0 0
-0 0 0
-0 0 0
-0 0 0
-0 0 0
-0 0 0
-0 0 0
-0 0 0
-0 0 0
-1.1523041 0.54070365 2.1000001
-1.1468205 0.54070365 2.1000001
-1.1375325 0.53890133 2.0930002
-1.1320672 0.53890133 2.0930002
-1.1266019 0.53890133 2.0930002
-1.1211367 0.53890133 2.0930002
-1.1156714 0.53890133 2.0930002
-1.1102061 0.53890133 2.0930002
-1.1047409 0.53890133 2.0930002
-1.0992755 0.53890133 2.0930002
-1.0938102 0.53890133 2.0930002
-1.0883449 0.53890133 2.0930002
-1.0828797 0.53890133 2.0930002
-1.0738111 0.53709894 2.0860002
-1.068364 0.53709894 2.0860002
-1.05935 0.53529656 2.079
-1.0539213 0.53529656 2.079
-1.0484926 0.53529656 2.079
-1.0430639 0.53529656 2.079
-1.0376351 0.53529656 2.079
-1.028731 0.53349423 2.072
-1.0233204 0.53349423 2.072
-0 0 0
-0 0 0
-0 0 0
-0 0 0
-0 0 0
-0 0 0
-0 0 0
-0 0 0
-0 0 0
-0 0 0
-0 0 0
-0 0 0
-0 0 0
-0 0 0
-0 0 0
-0 0 0
-0 0 0
-0 0 0
-0 0 0
-0 0 0
-0 0 0
-0 0 0
-0 0 0
-0 0 0
-0 0 0
-0.24281366 0.14676242 0.57000005
-0.24174865 0.14701989 0.57100004
-0.2406784 0.14727737 0.57200003
-0.23918478 0.14727737 0.57200003
-0.2381067 0.14753485 0.57300001
-0.2370234 0.14779232 0.574
-0.2359349 0.14804982 0.57500005
-0.23565656 0.14882223 0.57800001
-0.2345524 0.14907973 0.57900006
-0.23344298 0.1493372 0.58000004
-0.23192848 0.1493372 0.58000004
-0.23120849 0.14985214 0.58200002
-0.23008341 0.15010962 0.583
-0.22895312 0.15036711 0.58400005
-0.22781761 0.15062459 0.58500004
-0.22629003 0.15062459 0.58500004
-0.22399405 0.15010962 0.583
-0.22209011 0.14985214 0.58200002
-0.21981241 0.1493372 0.58000004
-0.21716878 0.14856476 0.57700002
-0.21491458 0.14804982 0.57500005
-0 0 0
-0.20970041 0.14650494 0.56900001
-0.20748277 0.14598998 0.56700003
-0.20527557 0.14547502 0.565
-0.20380022 0.14547502 0.565
-0.20196679 0.14521754 0.56400001
-0.20049407 0.14521754 0.56400001
-0.19866847 0.14496008 0.56300002
-0.19719835 0.14496008 0.56300002
-0.19572823 0.14496008 0.56300002
-0.19425811 0.14496008 0.56300002
-0.19278799 0.14496008 0.56300002
-0.19165769 0.14521754 0.56400001
-0.19018497 0.14521754 0.56400001
-0.18871224 0.14521754 0.56400001
-0.1875715 0.14547502 0.565
-0.18609615 0.14547502 0.565
-0.18462081 0.14547502 0.565
-0.18346964 0.14573251 0.56600004
-0.18199168 0.14573251 0.56600004
-0.18051374 0.14573251 0.56600004
-0.17903578 0.14573251 0.56600004
-0.17755784 0.14573251 0.56600004
-0.17639098 0.14598998 0.56700003
-0.17491041 0.14598998 0.56700003
-0.17342985 0.14598998 0.56700003
-0.1719493 0.14598998 0.56700003
-0.17046873 0.14598998 0.56700003
-0.16928621 0.14624746 0.56800002
-0.16780303 0.14624746 0.56800002
-0.16661267 0.14650494 0.56900001
-0.16512689 0.14650494 0.56900001
-0.1636411 0.14650494 0.56900001
-0.16215532 0.14650494 0.56900001
-0.16066954 0.14650494 0.56900001
-0.15918376 0.14650494 0.56900001
-0.15742081 0.14624746 0.56800002
-0.15593764 0.14624746 0.56800002
-0.15418255 0.14598998 0.56700003
-0.15270199 0.14598998 0.56700003
-0.15122142 0.14598998 0.56700003
-0.14974086 0.14598998 0.56700003
-0.1482603 0.14598998 0.56700003
-0.14652087 0.14573251 0.56600004
-0.14529918 0.14598998 0.56700003
-0.14381862 0.14598998 0.56700003
-0.14208703 0.14573251 0.56600004
-0.14060907 0.14573251 0.56600004
-0.13913111 0.14573251 0.56600004
-0.13765317 0.14573251 0.56600004
-0.13641581 0.14598998 0.56700003
-0.13493524 0.14598998 0.56700003
-0.13345468 0.14598998 0.56700003
-0.13220687 0.14624746 0.56800002
-0.13095385 0.14650494 0.56900001
-0.12946807 0.14650494 0.56900001
-0.12820722 0.14676242 0.57000005
-0.12671882 0.14676242 0.57000005
-0.12545012 0.14701989 0.57100004
-0.12395912 0.14701989 0.57100004
-0.12246811 0.14701989 0.57100004
-0.1209771 0.14701989 0.57100004
-0.11969536 0.14727737 0.57200003
-0.11820174 0.14727737 0.57200003
-0.11670812 0.14727737 0.57200003
-0.1152145 0.14727737 0.57200003
-0.11372089 0.14727737 0.57200003
-0.11222727 0.14727737 0.57200003
-0.11073365 0.14727737 0.57200003
-0.10924003 0.14727737 0.57200003
-0.10774641 0.14727737 0.57200003
-0.1062528 0.14727737 0.57200003
-0.10475918 0.14727737 0.57200003
-0.10326556 0.14727737 0.57200003
-0.10177194 0.14727737 0.57200003
-0.10027833 0.14727737 0.57200003
-0.098784707 0.14727737 0.57200003
-0.09729109 0.14727737 0.57200003
-0.095797472 0.14727737 0.57200003
-0.094303854 0.14727737 0.57200003
-0.092972487 0.14753485 0.57300001
-0.091476254 0.14753485 0.57300001
-0.089980029 0.14753485 0.57300001
-0.088483803 0.14753485 0.57300001
-0.087139383 0.14779232 0.574
-0.08564055 0.14779232 0.574
-0.084288299 0.14804982 0.57500005
-0.082786851 0.14804982 0.57500005
-0.081144027 0.14779232 0.574
-0.079645187 0.14779232 0.574
-0.078146346 0.14779232 0.574
-0.076647505 0.14779232 0.574
-0.075148664 0.14779232 0.574
-0.073521517 0.14753485 0.57300001
-0.072025292 0.14753485 0.57300001
-0.070529059 0.14753485 0.57300001
-0.069032826 0.14753485 0.57300001
-0.0675366 0.14753485 0.57300001
-0.066040367 0.14753485 0.57300001
-0.064544141 0.14753485 0.57300001
-0.063047908 0.14753485 0.57300001
-0.061551683 0.14753485 0.57300001
-0.060055453 0.14753485 0.57300001
-0.058559224 0.14753485 0.57300001
-0.057162583 0.14779232 0.574
-0.055663742 0.14779232 0.574
-0.054164901 0.14779232 0.574
-0.052666064 0.14779232 0.574
-0.051167224 0.14779232 0.574
-0.049754918 0.14804982 0.57500005
-0.048253465 0.14804982 0.57500005
-0.046670701 0.14779232 0.574
-0.045093168 0.14753485 0.57300001
-0.043596938 0.14753485 0.57300001
-0.042100709 0.14753485 0.57300001
-0.04060448 0.14753485 0.57300001
-0.03910825 0.14753485 0.57300001
-0.037612021 0.14753485 0.57300001
-0.036115792 0.14753485 0.57300001
-0.034619562 0.14753485 0.57300001
-0.033123333 0.14753485 0.57300001
-0.031627104 0.14753485 0.57300001
-0.030130876 0.14753485 0.57300001
-0.02868462 0.14779232 0.574
-0.027185779 0.14779232 0.574
-0.025731692 0.14804982 0.57500005
-0.02423024 0.14804982 0.57500005
-0.02272879 0.14804982 0.57500005
-0.021301171 0.14856476 0.57700002
